# .PCD v.7 - Point Cloud Data file format
VERSION .7
FIELDS x y z
SIZE 4 4 4
TYPE F F F
COUNT 1 1 1
WIDTH 722
HEIGHT 1
VIEWPOINT 0 0 0 1 0 0 0 
POINTS 722
DATA ascii
2264.2607689 -3064.7940636 -284.4443321 0.01147 -0.07777 0.99691
2264.0593052 -3064.8088455 -284.4442725 0.01148 -0.06974 0.99750
2281.3594341 -3063.3170605 -284.4858170 0.00920 0.00920 0.99992
2281.1586857 -3063.3320808 -284.4886184 -0.02070 -0.01687 0.99964
2280.9579372 -3063.3471012 -284.4946980 0.00306 -0.06897 0.99761
2280.7559967 -3063.3623600 -284.4894826 0.05018 -0.04064 0.99791
2280.5528641 -3063.3771420 -284.4755650 0.02224 -0.02224 0.99951
2280.3525925 -3063.3924007 -284.4811976 -0.01610 -0.02377 0.99959
2280.1513672 -3063.4071827 -284.4826579 -0.02032 -0.01342 0.99970
2279.9510956 -3063.4224415 -284.4897211 -0.03144 0.01074 0.99945
2279.7505856 -3063.4372234 -284.4949663 -0.01457 -0.01726 0.99974
2279.5493603 -3063.4524822 -284.4961286 0.01073 -0.03719 0.99925
2279.3476582 -3063.4672642 -284.4917476 0.01687 -0.02301 0.99959
2279.1459560 -3063.4825230 -284.4900787 0.01226 -0.03642 0.99926
2278.9444923 -3063.4973049 -284.4879329 0.00729 -0.01112 0.99991
2278.7432671 -3063.5125637 -284.4874263 0.01111 -0.04983 0.99870
2278.5415649 -3063.5275841 -284.4849229 0.02985 -0.06438 0.99748
2278.3391476 -3063.5423660 -284.4772339 0.01533 -0.04102 0.99904
2278.1381607 -3063.5576248 -284.4799757 -0.00690 -0.03029 0.99952
2277.9371738 -3063.5724068 -284.4808996 -0.00997 -0.00920 0.99991
2277.7364254 -3063.5876656 -284.4843268 -0.00767 -0.00767 0.99994
2277.5352001 -3063.6024475 -284.4842672 -0.01341 -0.04141 0.99905
2277.3346901 -3063.6177063 -284.4910026 -0.01457 -0.02301 0.99963
2277.1332264 -3063.6324883 -284.4907343 0.00728 -0.02991 0.99953
2276.9320011 -3063.6477470 -284.4889760 0.02108 -0.03412 0.99920
2276.7298222 -3063.6625290 -284.4832838 0.00422 -0.03182 0.99948
2276.5293121 -3063.6777878 -284.4882309 -0.00345 -0.05864 0.99827
2276.3276100 -3063.6925697 -284.4863534 0.01530 -0.07356 0.99717
2276.1261463 -3063.7078285 -284.4843268 0.01111 -0.03681 0.99926
2275.9249210 -3063.7228489 -284.4830751 0.01342 -0.01841 0.99974
2275.7229805 -3063.7378693 -284.4795287 0.00690 -0.02339 0.99970
2275.5219936 -3063.7528896 -284.4810486 -0.00268 -0.02646 0.99965
2275.3207684 -3063.7679100 -284.4814658 0.01302 -0.04945 0.99869
2275.1188278 -3063.7829304 -284.4772637 0.03678 -0.04064 0.99850
2274.9161720 -3063.7981892 -284.4678760 -0.00077 -0.04447 0.99901
2274.7166157 -3063.8129711 -284.4788730 -0.01915 -0.04447 0.99883
2274.5149136 -3063.8282299 -284.4768465 0.01455 -0.05749 0.99824
2274.3134499 -3063.8430119 -284.4747901 0.01339 -0.06744 0.99763
2274.1119862 -3063.8582706 -284.4733894 0.00612 -0.07127 0.99744
2273.9109993 -3063.8730526 -284.4744027 0.00000 -0.06477 0.99790
2273.7097740 -3063.8880730 -284.4753861 0.01149 -0.05749 0.99828
2273.5078335 -3063.9030933 -284.4715416 -0.00268 -0.06132 0.99811
2273.3075619 -3063.9181137 -284.4783664 -0.01451 -0.09038 0.99580
2273.1063366 -3063.9331341 -284.4800651 0.01718 -0.09382 0.99544
2272.9043961 -3063.9481544 -284.4742537 0.02522 -0.08159 0.99635
2272.7029324 -3063.9631748 -284.4723463 0.05970 -0.05481 0.99671
2272.4988461 -3063.9781952 -284.4515443 0.00690 -0.01726 0.99983
2272.3000050 -3063.9934540 -284.4700813 -0.05091 -0.05175 0.99736
2272.0990181 -3064.0082359 -284.4734788 -0.00690 -0.04179 0.99910
2271.8980312 -3064.0234947 -284.4740748 0.00038 -0.02646 0.99965
2271.6968060 -3064.0382767 -284.4740748 0.00000 -0.02684 0.99964
2271.4955807 -3064.0535355 -284.4748199 0.01687 -0.02646 0.99951
2271.2934017 -3064.0683174 -284.4681144 0.03447 -0.04524 0.99838
2271.0912228 -3064.0835762 -284.4622731 0.01035 -0.02684 0.99959
2270.8904743 -3064.0983582 -284.4648063 0.00077 -0.05481 0.99850
2270.6890106 -3064.1136169 -284.4635546 0.00997 -0.03144 0.99946
2270.4875469 -3064.1286373 -284.4617665 0.02031 -0.02991 0.99935
2270.2853680 -3064.1436577 -284.4562829 0.01035 -0.04026 0.99914
2270.0843811 -3064.1586781 -284.4588161 0.03022 -0.06936 0.99713
2269.8814869 -3064.1739368 -284.4462097 0.04865 -0.03566 0.99818
2269.6795464 -3064.1887188 -284.4401300 0.03717 -0.03527 0.99869
2269.4771290 -3064.2037392 -284.4322026 0.03640 -0.03949 0.99856
2269.2751884 -3064.2189980 -284.4266593 -0.02374 -0.05520 0.99819
2269.0758705 -3064.2337799 -284.4434381 -0.04049 -0.08427 0.99562
2268.8748837 -3064.2488003 -284.4455242 0.01799 -0.05826 0.99814
2268.6729431 -3064.2638206 -284.4379246 0.00383 -0.01150 0.99993
2268.4724331 -3064.2788410 -284.4443023 -0.01149 -0.04600 0.99888
2268.2709694 -3064.2938614 -284.4439745 0.01684 -0.06209 0.99793
2268.0690289 -3064.3091202 -284.4392955 0.00459 -0.06285 0.99801
2267.8685188 -3064.3239021 -284.4439447 -0.02415 -0.01649 0.99957
2267.6680088 -3064.3389225 -284.4495177 -0.03029 -0.00077 0.99954
2267.4674988 -3064.3539429 -284.4560444 0.00307 -0.03566 0.99936
2267.2653198 -3064.3692017 -284.4494283 0.01493 -0.05788 0.99821
2267.0645714 -3064.3839836 -284.4518423 0.00727 -0.06553 0.99782
2266.8628693 -3064.3992424 -284.4484746 0.01914 -0.05749 0.99816
2266.6611671 -3064.4140244 -284.4458818 0.01724 -0.04945 0.99863
2266.4594650 -3064.4292831 -284.4430804 0.01417 -0.04485 0.99889
2266.2580013 -3064.4440651 -284.4414711 0.00307 -0.03566 0.99936
2266.0567760 -3064.4593239 -284.4429314 -0.00460 -0.03451 0.99939
2265.8557892 -3064.4741058 -284.4444215 -0.00537 -0.03336 0.99943
2265.6548023 -3064.4893646 -284.4461799 -0.00652 -0.03259 0.99945
2265.4538155 -3064.5041466 -284.4480872 -0.00307 -0.03987 0.99920
2265.2523518 -3064.5194054 -284.4485343 0.00920 -0.03489 0.99935
2265.0508881 -3064.5344257 -284.4454348 0.01648 -0.02991 0.99942
2264.8491859 -3064.5492077 -284.4427526 0.01457 -0.01994 0.99970
2264.6474838 -3064.5644665 -284.4401300 0.01534 -0.01687 0.99974
2264.4457817 -3064.5792484 -284.4370306 0.01610 -0.03451 0.99927
2264.2443180 -3064.5945072 -284.4347358 0.00958 -0.04294 0.99903
2264.0428543 -3064.6092892 -284.4344378 0.00536 -0.05405 0.99852
2281.1429501 -3063.1327629 -284.4858766 0.03182 -0.02071 0.99928
2280.9410095 -3063.1477833 -284.4783366 0.02180 -0.06974 0.99733
2280.7397842 -3063.1628036 -284.4790816 0.01916 -0.04141 0.99896
2280.5373669 -3063.1780624 -284.4717801 0.00728 -0.03106 0.99949
2280.3368568 -3063.1928444 -284.4770253 -0.01495 -0.01457 0.99978
2280.1356316 -3063.2081032 -284.4781578 -0.02374 -0.05366 0.99828
2279.9358368 -3063.2228851 -284.4882607 -0.03221 0.00115 0.99948
2279.7348499 -3063.2379055 -284.4910622 0.00153 -0.03451 0.99940
2279.5333862 -3063.2529259 -284.4887376 0.01800 -0.05022 0.99858
2279.3314457 -3063.2681847 -284.4853103 0.00537 -0.01611 0.99986
2279.1306973 -3063.2829666 -284.4870985 -0.00575 -0.01419 0.99988
2278.9294720 -3063.2979870 -284.4879925 0.02760 -0.02147 0.99939
2278.7265778 -3063.3130074 -284.4765186 0.03791 -0.04945 0.99806
2278.5251141 -3063.3280277 -284.4741344 -0.00115 -0.04754 0.99887
2278.3243656 -3063.3430481 -284.4784856 -0.01035 0.01112 0.99988
2278.1231403 -3063.3580685 -284.4780087 -0.01150 -0.00652 0.99991
2277.9223919 -3063.3730888 -284.4833136 -0.01917 0.00038 0.99982
2277.7214050 -3063.3881092 -284.4857275 0.01342 -0.00767 0.99988
2277.5192261 -3063.4033680 -284.4780982 0.00192 -0.01611 0.99987
2277.3189545 -3063.4181499 -284.4854593 -0.01111 -0.03719 0.99925
2277.1174908 -3063.4331703 -284.4837010 0.00767 -0.03527 0.99935
2276.9160271 -3063.4481907 -284.4833732 0.01150 -0.02876 0.99952
2276.7143250 -3063.4634495 -284.4799459 0.02031 -0.03451 0.99920
2276.5126228 -3063.4782314 -284.4761908 0.02606 -0.03182 0.99915
2276.3104439 -3063.4934902 -284.4704390 -0.01035 -0.02377 0.99966
2276.1106491 -3063.5082722 -284.4810784 -0.02224 -0.01649 0.99962
2275.9091854 -3063.5235310 -284.4799161 0.00844 -0.00844 0.99993
2275.7077217 -3063.5383129 -284.4778895 0.01534 -0.00460 0.99987
2275.5057812 -3063.5535717 -284.4738066 0.04139 -0.02684 0.99878
2275.3028870 -3063.5685921 -284.4619155 0.03061 -0.06706 0.99728
2275.1019001 -3063.5836124 -284.4633758 -0.00536 -0.06362 0.99796
2274.9009132 -3063.5986328 -284.4659090 -0.00767 -0.01419 0.99987
2274.6999264 -3063.6134148 -284.4669521 0.00537 -0.03374 0.99942
2274.4982243 -3063.6286736 -284.4646871 0.01303 -0.03221 0.99940
2274.2965221 -3063.6434555 -284.4627202 0.01073 -0.02952 0.99951
2274.0952969 -3063.6587143 -284.4611704 0.00575 -0.02952 0.99955
2273.8940716 -3063.6737347 -284.4612002 0.00728 -0.03872 0.99922
2273.6923695 -3063.6887550 -284.4594717 0.01226 -0.04715 0.99881
2273.4909058 -3063.7037754 -284.4576538 0.01226 -0.04294 0.99900
2273.2894421 -3063.7187958 -284.4558060 0.01378 -0.06400 0.99785
2273.0879784 -3063.7338161 -284.4539881 0.01071 -0.07318 0.99726
2272.8867531 -3063.7488365 -284.4536602 -0.00230 -0.05673 0.99839
2272.6857662 -3063.7638569 -284.4565511 0.00153 -0.06170 0.99809
2272.4840641 -3063.7788773 -284.4548523 -0.01611 0.00882 0.99983
2272.2840309 -3063.7938976 -284.4627500 -0.02530 -0.02454 0.99938
2272.0832825 -3063.8089180 -284.4658196 -0.01457 -0.02837 0.99949
2271.8822956 -3063.8239384 -284.4694853 -0.00690 -0.03106 0.99949
2271.6810703 -3063.8389587 -284.4694853 0.00997 -0.02876 0.99954
2271.4796066 -3063.8539791 -284.4662964 0.03065 -0.04332 0.99859
2271.2771893 -3063.8692379 -284.4583392 0.03484 -0.05328 0.99797
2271.0752487 -3063.8840199 -284.4537795 0.02070 -0.02914 0.99936
2270.8735466 -3063.8992786 -284.4508290 -0.00192 -0.04868 0.99881
2270.6727982 -3063.9140606 -284.4559550 0.00536 -0.06209 0.99806
2270.4708576 -3063.9290810 -284.4506204 0.03331 -0.05290 0.99804
2270.2689171 -3063.9443398 -284.4440937 0.03675 -0.05481 0.99782
2270.0667381 -3063.9591217 -284.4374180 0.03092 -0.09382 0.99511
2269.8650360 -3063.9743805 -284.4344079 0.02028 -0.06323 0.99779
2269.6630955 -3063.9894009 -284.4311297 0.01802 -0.02569 0.99951
2269.4613934 -3064.0044212 -284.4278514 0.01648 -0.02684 0.99950
2269.2596912 -3064.0194416 -284.4252288 0.00345 0.00690 0.99997
2269.0587044 -3064.0344620 -284.4262421 -0.00919 -0.05443 0.99848
2268.8579559 -3064.0494823 -284.4305933 -0.02220 -0.05711 0.99812
2268.6574459 -3064.0645027 -284.4368815 -0.01189 -0.01917 0.99975
2268.4562206 -3064.0795231 -284.4359875 0.00728 -0.05098 0.99867
2268.2549953 -3064.0945435 -284.4355106 0.00498 -0.05213 0.99863
2268.0535316 -3064.1095638 -284.4355106 -0.01533 -0.02837 0.99948
2267.8532600 -3064.1245842 -284.4425738 -0.02875 -0.01611 0.99946
2267.6525116 -3064.1396046 -284.4475806 -0.00537 -0.01457 0.99988
2267.4512863 -3064.1546249 -284.4451666 0.01456 -0.03412 0.99931
2267.2495842 -3064.1696453 -284.4426930 0.01112 -0.03067 0.99947
2267.0481205 -3064.1846657 -284.4416499 0.00805 -0.03911 0.99920
2266.8466568 -3064.1996861 -284.4405770 0.00843 -0.04064 0.99914
2266.6451931 -3064.2147064 -284.4395041 0.01188 -0.04600 0.99887
2266.4434910 -3064.2297268 -284.4370902 0.00843 -0.04830 0.99880
2266.2425041 -3064.2449856 -284.4375372 -0.00038 -0.02684 0.99964
2266.0412788 -3064.2597675 -284.4380438 -0.00153 -0.02646 0.99965
2265.8400536 -3064.2747879 -284.4389677 -0.00345 -0.02646 0.99964
2265.6388283 -3064.2898083 -284.4402194 0.00498 -0.03182 0.99948
2265.4373646 -3064.3048286 -284.4379246 0.00268 -0.03451 0.99940
2265.2363777 -3064.3198490 -284.4401896 -0.00077 -0.03872 0.99925
2265.0349140 -3064.3348694 -284.4393551 0.00652 -0.03336 0.99942
2264.8334503 -3064.3498898 -284.4385803 0.00690 -0.02991 0.99953
2264.6319866 -3064.3649101 -284.4375372 0.01763 -0.02607 0.99950
2264.4302845 -3064.3801689 -284.4322324 0.02836 -0.02952 0.99916
2264.2283440 -3064.3949509 -284.4269276 0.02644 -0.03374 0.99908
2264.0264034 -3064.4102097 -284.4224870 0.00996 -0.04332 0.99901
2281.1272144 -3062.9334450 -284.4792902 0.05020 -0.02607 0.99840
2280.9240818 -3062.9484653 -284.4660580 0.01917 -0.02952 0.99938
2280.7238102 -3062.9634857 -284.4723761 0.01035 -0.03451 0.99935
2280.5211544 -3062.9785061 -284.4629586 -0.00575 -0.03681 0.99931
2280.3218365 -3062.9935265 -284.4758034 0.00575 -0.04409 0.99901
2280.1187038 -3063.0085468 -284.4620049 -0.03446 -0.05022 0.99814
2279.9210548 -3063.0233288 -284.4910920 -0.04677 -0.01150 0.99884
2279.7183990 -3063.0385876 -284.4811082 0.03949 -0.01150 0.99915
2279.5166969 -3063.0533695 -284.4754457 -0.00613 -0.05098 0.99868
2279.3166637 -3063.0686283 -284.4851613 -0.02109 -0.02186 0.99954
2279.1152000 -3063.0834103 -284.4846249 0.01878 -0.02952 0.99939
2278.9130211 -3063.0986691 -284.4785154 0.04713 -0.03029 0.99843
2278.7101269 -3063.1136894 -284.4664454 0.03182 -0.01534 0.99938
2278.5089016 -3063.1287098 -284.4660282 -0.03757 -0.01534 0.99918
2278.3098221 -3063.1434917 -284.4819129 -0.02876 -0.00499 0.99957
2278.1078815 -3063.1587505 -284.4777107 0.00115 -0.00767 0.99997
2277.9071331 -3063.1735325 -284.4817042 -0.00613 -0.02416 0.99969
2277.7059078 -3063.1887913 -284.4808996 0.01188 -0.02799 0.99954
2277.5042057 -3063.2038116 -284.4777703 0.01150 -0.00882 0.99989
2277.3027420 -3063.2188320 -284.4764590 0.00537 -0.02646 0.99964
2277.1012783 -3063.2338524 -284.4764590 -0.00038 -0.01649 0.99986
2276.9000530 -3063.2488728 -284.4771445 0.01994 -0.01726 0.99965
2276.6976357 -3063.2638931 -284.4689190 0.00843 -0.03182 0.99946
2276.4973640 -3063.2789135 -284.4746411 -0.01955 -0.01496 0.99970
2276.2963772 -3063.2939339 -284.4771743 -0.01035 0.01572 0.99982
2276.0951519 -3063.3089542 -284.4783664 -0.00537 -0.00575 0.99997
2275.8944035 -3063.3239746 -284.4794393 0.00383 -0.01764 0.99984
2275.6927013 -3063.3387566 -284.4772935 0.02684 -0.01419 0.99954
2275.4902840 -3063.3540154 -284.4689488 0.06053 -0.03029 0.99771
2275.2869129 -3063.3690357 -284.4536304 0.04444 -0.03681 0.99833
2275.0854492 -3063.3842945 -284.4520509 -0.02032 -0.02147 0.99956
2274.8854160 -3063.3990765 -284.4624817 -0.03066 -0.02837 0.99913
2274.6846676 -3063.4140968 -284.4652832 -0.00153 -0.01419 0.99990
2274.4832039 -3063.4291172 -284.4635248 0.00805 -0.02224 0.99972
2274.2817402 -3063.4443760 -284.4626904 0.00575 -0.00690 0.99996
2274.0802765 -3063.4591579 -284.4614983 0.01112 -0.01802 0.99978
2273.8785744 -3063.4744167 -284.4587564 0.01342 -0.00268 0.99991
2273.6771107 -3063.4891987 -284.4560742 0.01150 0.00383 0.99993
2273.4754086 -3063.5044575 -284.4539881 0.00959 -0.00307 0.99995
2273.2739449 -3063.5192394 -284.4522297 0.01035 -0.02262 0.99969
2273.0724812 -3063.5344982 -284.4505012 0.00115 0.00767 0.99997
2272.8712559 -3063.5495186 -284.4516039 0.00690 0.00230 0.99997
2272.6693153 -3063.5645390 -284.4476104 -0.00651 -0.04179 0.99911
2272.4692822 -3063.5795593 -284.4554782 -0.03259 -0.01726 0.99932
2272.2687721 -3063.5945797 -284.4611108 -0.01533 -0.03412 0.99930
2272.0675468 -3063.6096001 -284.4626904 0.00115 -0.04409 0.99903
2271.8663216 -3063.6246204 -284.4619453 0.00498 -0.05366 0.99855
2271.6650963 -3063.6396408 -284.4622433 0.01723 -0.05175 0.99851
2271.4631557 -3063.6544228 -284.4565213 0.04443 -0.04409 0.99804
2271.2602615 -3063.6696815 -284.4456136 0.02030 -0.05251 0.99841
2271.0595131 -3063.6844635 -284.4499648 0.00460 -0.05366 0.99855
2270.8575726 -3063.6997223 -284.4454348 0.02990 -0.02339 0.99928
2270.6556320 -3063.7147427 -284.4385505 0.01801 -0.04370 0.99888
2270.4544067 -3063.7297630 -284.4395339 0.01571 -0.03451 0.99928
2270.2522278 -3063.7447834 -284.4331563 0.05019 -0.03029 0.99828
2270.0490952 -3063.7600422 -284.4200730 0.03487 -0.03796 0.99867
2269.8478699 -3063.7748241 -284.4201922 -0.01876 -0.05596 0.99826
2269.6478367 -3063.7900829 -284.4293416 0.00077 -0.03566 0.99936
2269.4456577 -3063.8048649 -284.4209969 0.00038 -0.00268 1.00000
2269.2453861 -3063.8201237 -284.4292521 -0.00307 0.00575 0.99998
2269.0429688 -3063.8349056 -284.4220698 0.01419 0.00000 0.99990
2268.8419819 -3063.8501644 -284.4235301 -0.01955 -0.02531 0.99949
2268.6417103 -3063.8649464 -284.4306529 0.00268 -0.03757 0.99929
2268.4395313 -3063.8802052 -284.4236493 0.02222 -0.04447 0.99876
2268.2380676 -3063.8952255 -284.4229937 -0.00804 -0.04907 0.99876
2268.0375576 -3063.9102459 -284.4284177 -0.03446 -0.05328 0.99798
2267.8377628 -3063.9250278 -284.4383717 -0.03446 -0.05443 0.99792
2267.6372528 -3063.9402866 -284.4438851 -0.00460 -0.05328 0.99857
2267.4355507 -3063.9550686 -284.4418883 0.02107 -0.04868 0.99859
2267.2336102 -3063.9703274 -284.4368219 0.01763 -0.04026 0.99903
2267.0321465 -3063.9853477 -284.4360173 0.01456 -0.03451 0.99930
2266.8302059 -3064.0001297 -284.4319046 0.02528 -0.04409 0.99871
2266.6285038 -3064.0153885 -284.4271362 0.02413 -0.04409 0.99874
2266.4268017 -3064.0301704 -284.4235301 -0.00690 -0.03106 0.99949
2266.2265301 -3064.0454292 -284.4308019 -0.02070 -0.01534 0.99967
2266.0253048 -3064.0602112 -284.4323814 -0.00690 -0.01150 0.99991
2265.8243179 -3064.0754700 -284.4339609 -0.00115 -0.01994 0.99980
2265.6230927 -3064.0902519 -284.4333947 0.00153 -0.02952 0.99956
2265.4218674 -3064.1055107 -284.4341993 0.00307 -0.03029 0.99954
2265.2204037 -3064.1202927 -284.4330668 0.00843 -0.03987 0.99917
2265.0189400 -3064.1355515 -284.4319344 0.00920 -0.04217 0.99907
2264.8177147 -3064.1505718 -284.4306231 0.00996 -0.04447 0.99896
2264.6160126 -3064.1655922 -284.4292223 0.01915 -0.04562 0.99878
2264.4140720 -3064.1806126 -284.4242752 0.02452 -0.03719 0.99901
2264.2123699 -3064.1956329 -284.4204605 0.02031 -0.02991 0.99935
2281.1114788 -3062.7338886 -284.4738662 0.04444 -0.03604 0.99836
2280.9090614 -3062.7489090 -284.4659686 0.02224 -0.00383 0.99975
2280.7078362 -3062.7639294 -284.4649553 0.02262 -0.01649 0.99961
2280.5054188 -3062.7789497 -284.4573259 0.01534 -0.01726 0.99973
2280.3044319 -3062.7942085 -284.4592631 0.00038 -0.06630 0.99780
2280.1029682 -3062.8089905 -284.4592333 -0.06361 -0.01342 0.99788
2279.9053192 -3062.8240108 -284.4851315 -0.06282 -0.03297 0.99748
2279.7040939 -3062.8390312 -284.4853103 0.04102 -0.00690 0.99913
2279.5004845 -3062.8542900 -284.4686508 0.02223 -0.02914 0.99933
2279.3004513 -3062.8690720 -284.4772637 -0.01226 -0.03642 0.99926
2279.0989876 -3062.8840923 -284.4747007 0.00920 -0.02914 0.99953
2278.8975239 -3062.8991127 -284.4744325 0.01457 -0.02032 0.99969
2278.6955833 -3062.9143715 -284.4693959 0.01342 -0.00499 0.99990
2278.4943581 -3062.9291534 -284.4691575 -0.02109 0.01687 0.99964
2278.2940865 -3062.9444122 -284.4773233 -0.01111 -0.04562 0.99890
2278.0926228 -3062.9591942 -284.4749093 0.01035 -0.02607 0.99961
2277.8911591 -3062.9744530 -284.4739258 0.00422 -0.03221 0.99947
2277.6899338 -3062.9892349 -284.4742239 0.00153 -0.02531 0.99968
2277.4884701 -3063.0044937 -284.4741642 -0.00038 -0.01150 0.99993
2277.2872448 -3063.0192757 -284.4747603 -0.00652 -0.00959 0.99993
2277.0864964 -3063.0345345 -284.4771147 -0.00115 -0.01649 0.99986
2276.8850327 -3063.0493164 -284.4758034 0.02607 -0.01342 0.99957
2276.6826153 -3063.0643368 -284.4670415 0.01227 0.00038 0.99992
2276.4816284 -3063.0795956 -284.4708860 -0.02300 -0.02339 0.99946
2276.2813568 -3063.0943775 -284.4770551 -0.01725 -0.03489 0.99924
2276.0803699 -3063.1093979 -284.4789028 0.01341 -0.03719 0.99922
2275.8781910 -3063.1244183 -284.4726741 0.02259 -0.05290 0.99834
2275.6767273 -3063.1396770 -284.4713032 0.03523 -0.04830 0.99821
2275.4738331 -3063.1546974 -284.4598293 0.06511 -0.03221 0.99736
2275.2707005 -3063.1697178 -284.4457030 0.01150 -0.01035 0.99988
2275.0709057 -3063.1847382 -284.4555080 -0.02300 -0.02224 0.99949
2274.8696804 -3063.1997585 -284.4555378 -0.01304 -0.01764 0.99976
2274.6689320 -3063.2147789 -284.4612598 0.00230 -0.02952 0.99956
2274.4669914 -3063.2297993 -284.4555676 0.00498 -0.01917 0.99980
2274.2662430 -3063.2448196 -284.4598293 0.00575 -0.01304 0.99990
2274.0643024 -3063.2598400 -284.4536304 0.00153 -0.01956 0.99981
2273.8637924 -3063.2748604 -284.4597399 -0.01764 -0.00153 0.99984
2273.6625671 -3063.2898808 -284.4607234 0.00882 0.00499 0.99995
2273.4606266 -3063.3049011 -284.4560742 0.03756 -0.02952 0.99886
2273.2579708 -3063.3201599 -284.4464779 0.00268 -0.06936 0.99759
2273.0584145 -3063.3349419 -284.4570577 -0.01840 -0.01879 0.99965
2272.8567123 -3063.3502007 -284.4544351 0.04255 -0.00767 0.99906
2272.6533413 -3063.3649826 -284.4401002 0.01265 0.01457 0.99981
2272.4533081 -3063.3802414 -284.4489515 -0.02108 -0.03527 0.99916
2272.2520828 -3063.3950233 -284.4496071 0.00498 -0.03796 0.99927
2272.0508575 -3063.4100437 -284.4481170 0.00766 -0.04639 0.99889
2271.8493938 -3063.4250641 -284.4479084 0.00306 -0.04562 0.99895
2271.6481686 -3063.4400845 -284.4482362 0.00536 -0.04907 0.99878
2271.4467049 -3063.4553432 -284.4472229 0.03104 -0.03642 0.99885
2271.2440491 -3063.4701252 -284.4367623 0.03834 -0.01572 0.99914
2271.0423470 -3063.4853840 -284.4322026 -0.00498 -0.05826 0.99829
2270.8420753 -3063.5001659 -284.4405770 -0.01227 -0.02531 0.99960
2270.6403732 -3063.5154247 -284.4378650 0.00997 0.00537 0.99994
2270.4389095 -3063.5302067 -284.4364047 0.01994 -0.01726 0.99965
2270.2367306 -3063.5454655 -284.4303846 0.03948 -0.02262 0.99896
2270.0340748 -3063.5604858 -284.4210565 0.04332 0.00345 0.99906
2269.8318958 -3063.5757446 -284.4127119 0.01227 -0.02607 0.99958
2269.6311474 -3063.5905266 -284.4168842 -0.03063 -0.05558 0.99798
2269.4311142 -3063.6055470 -284.4266891 -0.02607 -0.01074 0.99960
2269.2298889 -3063.6205673 -284.4276428 0.00192 0.00383 0.99999
2269.0286636 -3063.6355877 -284.4258845 0.01687 -0.00920 0.99982
2268.8267231 -3063.6506081 -284.4211161 0.01150 -0.02147 0.99970
2268.6254978 -3063.6658669 -284.4218314 0.01264 -0.04907 0.99872
2268.4235573 -3063.6806488 -284.4174206 0.01534 -0.01687 0.99974
2268.2220936 -3063.6959076 -284.4161391 0.00690 -0.02032 0.99977
2268.0208683 -3063.7106895 -284.4153047 -0.00957 -0.06209 0.99802
2267.8203583 -3063.7259483 -284.4218910 -0.02101 -0.08694 0.99599
2267.6196098 -3063.7407303 -284.4264209 -0.00076 -0.09229 0.99573
2267.4181461 -3063.7557507 -284.4249606 0.00650 -0.07318 0.99730
2267.2171593 -3063.7707710 -284.4259739 -0.00230 -0.04907 0.99879
2267.0161724 -3063.7857914 -284.4273746 0.01226 -0.03719 0.99923
2266.8139935 -3063.8008118 -284.4221592 0.01725 -0.02109 0.99963
2266.6125298 -3063.8158321 -284.4210565 -0.00614 -0.00844 0.99995
2266.4117813 -3063.8308525 -284.4248712 -0.02722 -0.00383 0.99962
2266.2117481 -3063.8458729 -284.4320238 -0.02186 -0.00307 0.99976
2266.0105228 -3063.8608932 -284.4336927 0.00307 -0.00844 0.99996
2265.8088207 -3063.8759136 -284.4310701 0.01457 -0.01994 0.99970
2265.6071186 -3063.8911724 -284.4284177 0.01495 -0.02569 0.99956
2265.4056549 -3063.9059544 -284.4257951 0.01341 -0.03412 0.99933
2265.2041912 -3063.9212132 -284.4239771 0.01150 -0.03642 0.99927
2265.0027275 -3063.9359951 -284.4222188 0.01150 -0.03834 0.99920
2264.8010254 -3063.9512539 -284.4204307 0.01188 -0.04102 0.99909
2264.5995617 -3063.9660358 -284.4187021 0.01303 -0.04332 0.99898
2264.3978596 -3063.9812946 -284.4165564 0.01341 -0.03681 0.99923
2264.1966343 -3063.9963150 -284.4144106 0.01418 -0.02991 0.99945
2263.9949322 -3064.0113354 -284.4118178 0.00575 -0.02454 0.99968
2281.0950279 -3062.5343323 -284.4633758 0.01685 -0.05673 0.99825
2280.8938026 -3062.5495911 -284.4639421 -0.00230 -0.02569 0.99967
2280.6925774 -3062.5643730 -284.4650745 0.02071 -0.00115 0.99978
2280.4901600 -3062.5796318 -284.4555974 0.03949 -0.00383 0.99921
2280.2879810 -3062.5946522 -284.4492495 -0.00460 -0.03642 0.99933
2280.0881863 -3062.6096725 -284.4585478 -0.07547 -0.01611 0.99702
2279.8895836 -3062.6244545 -284.4799161 -0.04329 -0.03719 0.99837
2279.6878815 -3062.6397133 -284.4770551 0.04629 -0.06438 0.99685
2279.4847488 -3062.6547337 -284.4630480 0.01572 -0.00690 0.99985
2279.2847157 -3062.6697540 -284.4709456 -0.02223 -0.02377 0.99947
2279.0834904 -3062.6847744 -284.4727337 0.00230 0.00268 0.99999
2278.8817883 -3062.6997948 -284.4699025 0.02262 -0.01150 0.99968
2278.6798477 -3062.7148151 -284.4640315 -0.00767 -0.01150 0.99990
2278.4798145 -3062.7298355 -284.4733298 -0.00038 0.00652 0.99998
2278.2773972 -3062.7448559 -284.4640613 0.01725 -0.02339 0.99958
2278.0764103 -3062.7598763 -284.4670415 -0.01035 -0.01457 0.99984
2277.8754234 -3062.7748966 -284.4687104 -0.00882 -0.00575 0.99994
2277.6741982 -3062.7896786 -284.4707370 -0.00920 -0.02569 0.99963
2277.4734497 -3062.8049374 -284.4731808 -0.00383 -0.02147 0.99976
2277.2722244 -3062.8197193 -284.4729125 0.00920 -0.01457 0.99985
2277.0705223 -3062.8349781 -284.4698727 0.00652 -0.02607 0.99964
2276.8692970 -3062.8499985 -284.4710052 0.00460 -0.02416 0.99970
2276.6678333 -3062.8650188 -284.4686806 0.01227 -0.00268 0.99992
2276.4661312 -3062.8800392 -284.4660878 0.01342 -0.02147 0.99968
2276.2646675 -3062.8950596 -284.4638526 0.01073 -0.04600 0.99888
2276.0632038 -3062.9100800 -284.4630778 0.01953 -0.05443 0.99833
2275.8610249 -3062.9253387 -284.4576240 0.01990 -0.06170 0.99790
2275.6595612 -3062.9401207 -284.4568491 0.01302 -0.05902 0.99817
2275.4583359 -3062.9553795 -284.4540775 0.02070 -0.02339 0.99951
2275.2561569 -3062.9701614 -284.4492197 0.02531 -0.00230 0.99968
2275.0542164 -3062.9854202 -284.4439745 -0.01380 -0.03642 0.99924
2274.8544216 -3063.0002022 -284.4559252 -0.02185 -0.02032 0.99955
2274.6527195 -3063.0154610 -284.4533920 0.00307 -0.03067 0.99952
2274.4519711 -3063.0302429 -284.4556868 -0.00882 -0.01534 0.99984
2274.2509842 -3063.0455017 -284.4573259 0.00690 -0.02377 0.99969
2274.0490437 -3063.0605221 -284.4536006 -0.00268 -0.00767 0.99997
2273.8485336 -3063.0755424 -284.4586968 -0.00920 -0.02071 0.99974
2273.6473083 -3063.0905628 -284.4578922 0.04598 -0.03106 0.99846
2273.4436989 -3063.1055832 -284.4409645 0.08567 -0.05405 0.99486
2273.2403278 -3063.1206036 -284.4245136 -0.00537 -0.01457 0.99988
2273.0414867 -3063.1353855 -284.4434977 -0.05441 -0.02722 0.99815
2272.8404999 -3063.1506443 -284.4471633 -0.02224 -0.02109 0.99953
2272.6402283 -3063.1654263 -284.4530046 0.01150 0.01802 0.99977
2272.4375725 -3063.1806850 -284.4420075 0.01917 -0.01879 0.99964
2272.2365856 -3063.1957054 -284.4458222 -0.00345 -0.01342 0.99990
2272.0351219 -3063.2107258 -284.4438553 0.00652 -0.01227 0.99990
2271.8336582 -3063.2257462 -284.4435871 0.00460 -0.01496 0.99988
2271.6324329 -3063.2407665 -284.4425142 0.00805 -0.01802 0.99981
2271.4309692 -3063.2557869 -284.4409049 0.01227 -0.01802 0.99976
2271.2292671 -3063.2708073 -284.4381630 0.03604 -0.01611 0.99922
2271.0263729 -3063.2858276 -284.4268680 0.00537 0.00997 0.99994
2270.8263397 -3063.3010864 -284.4356596 -0.03220 -0.01687 0.99934
2270.6258297 -3063.3158684 -284.4403684 0.00882 -0.00077 0.99996
2270.4234123 -3063.3311272 -284.4320536 0.04446 -0.02071 0.99880
2270.2207565 -3063.3459091 -284.4229341 0.03181 -0.03297 0.99895
2270.0190544 -3063.3611679 -284.4201326 0.03450 -0.01687 0.99926
2269.8163986 -3063.3761883 -284.4094336 0.02991 -0.00499 0.99954
2269.6149349 -3063.3912086 -284.4081521 -0.01763 -0.03259 0.99931
2269.4151402 -3063.4062290 -284.4175100 -0.05284 -0.04715 0.99749
2269.2155838 -3063.4212494 -284.4306827 0.00000 -0.01381 0.99990
2269.0124512 -3063.4362698 -284.4178677 0.04177 -0.02607 0.99879
2268.8107491 -3063.4512901 -284.4145894 0.01993 -0.02416 0.99951
2268.6088085 -3063.4663105 -284.4106257 -0.00192 -0.03374 0.99943
2268.4085369 -3063.4810925 -284.4163775 -0.00997 0.00000 0.99995
2268.2070732 -3063.4963512 -284.4146192 0.03029 0.00537 0.99953
2268.0041790 -3063.5113716 -284.4038904 0.02722 -0.02569 0.99930
2267.8029537 -3063.5263920 -284.4043672 -0.00421 -0.04792 0.99884
2267.6019669 -3063.5414124 -284.4069898 -0.01570 -0.05405 0.99841
2267.4016953 -3063.5564327 -284.4123542 -0.02338 -0.03067 0.99926
2267.2009468 -3063.5714531 -284.4173312 -0.01955 -0.02186 0.99957
2267.0001984 -3063.5864735 -284.4208479 -0.01265 -0.01956 0.99973
2266.7989731 -3063.6014938 -284.4230235 -0.00805 0.00230 0.99996
2266.5979862 -3063.6165142 -284.4239771 0.00038 0.00268 1.00000
2266.3965225 -3063.6315346 -284.4228148 -0.01380 -0.02492 0.99959
2266.1962509 -3063.6465549 -284.4302058 -0.01419 -0.01649 0.99976
2265.9947872 -3063.6615753 -284.4289541 0.01304 -0.01994 0.99972
2265.7933235 -3063.6765957 -284.4255865 0.01725 -0.02109 0.99963
2265.5916214 -3063.6916161 -284.4226360 0.01533 -0.02607 0.99954
2265.3899193 -3063.7066364 -284.4201922 0.01342 -0.02991 0.99946
2265.1882172 -3063.7216568 -284.4181955 0.01150 -0.02492 0.99962
2264.9867535 -3063.7369156 -284.4162583 0.01265 -0.02607 0.99958
2264.7850513 -3063.7516975 -284.4138443 0.01418 -0.03029 0.99944
2264.5835876 -3063.7669563 -284.4114602 0.01380 -0.02837 0.99950
2264.3821239 -3063.7817383 -284.4090760 0.00997 -0.02377 0.99967
2264.1806602 -3063.7967587 -284.4081223 0.00652 -0.01802 0.99982
2263.9791965 -3063.8117790 -284.4069898 -0.00077 -0.01342 0.99991
2281.0783386 -3062.3352528 -284.4507098 0.00690 -0.03681 0.99930
2280.8775902 -3062.3500347 -284.4558060 -0.02989 -0.03642 0.99889
2280.6775570 -3062.3652935 -284.4638526 0.00460 -0.02492 0.99968
2280.4751396 -3062.3800755 -284.4546735 0.04829 -0.02301 0.99857
2280.2724838 -3062.3953342 -284.4449282 -0.00153 0.00614 0.99998
2280.0724506 -3062.4101162 -284.4550610 -0.06629 -0.00882 0.99776
2279.8736095 -3062.4253750 -284.4716907 -0.00345 -0.05137 0.99867
2279.6704769 -3062.4401569 -284.4580114 0.01915 -0.04830 0.99865
2279.4702053 -3062.4554157 -284.4654620 -0.02760 0.01917 0.99944
2279.2692184 -3062.4701977 -284.4684422 -0.02415 -0.01879 0.99953
2279.0689468 -3062.4854565 -284.4757140 -0.00192 0.00345 0.99999
2278.8667679 -3062.5002384 -284.4690979 0.02569 0.00959 0.99962
2278.6650658 -3062.5154972 -284.4650447 -0.00767 0.01266 0.99989
2278.4645557 -3062.5302792 -284.4718099 -0.00537 -0.00767 0.99996
2278.2626152 -3062.5452995 -284.4673693 0.00537 0.00959 0.99994
2278.0618668 -3062.5605583 -284.4694257 -0.01112 -0.00153 0.99994
2277.8608799 -3062.5753403 -284.4718993 0.01380 -0.01496 0.99979
2277.6584625 -3062.5905991 -284.4642699 0.01725 -0.02377 0.99957
2277.4574757 -3062.6053810 -284.4657004 -0.00805 -0.03527 0.99935
2277.2564888 -3062.6206398 -284.4685912 -0.00077 -0.01802 0.99984
2277.0550251 -3062.6354218 -284.4665349 0.00729 -0.00920 0.99993
2276.8535614 -3062.6506805 -284.4659388 0.00383 -0.02339 0.99972
2276.6523361 -3062.6654625 -284.4656408 0.01112 -0.01572 0.99981
2276.4503956 -3062.6807213 -284.4619453 0.01993 -0.02684 0.99944
2276.2486935 -3062.6957417 -284.4583690 0.01419 -0.01150 0.99983
2276.0474682 -3062.7107620 -284.4565213 0.02951 -0.03067 0.99909
2275.8448124 -3062.7257824 -284.4473720 0.02492 -0.02684 0.99933
2275.6435871 -3062.7408028 -284.4472229 -0.00422 -0.02262 0.99974
2275.4426003 -3062.7558231 -284.4497859 0.00997 -0.03067 0.99948
2275.2404213 -3062.7710819 -284.4440937 0.02147 -0.00652 0.99975
2275.0387192 -3062.7858639 -284.4413817 -0.00997 0.00115 0.99995
2274.8384476 -3062.8011227 -284.4480574 -0.01841 -0.00805 0.99980
2274.6372223 -3062.8159046 -284.4489813 -0.00383 -0.00499 0.99998
2274.4359970 -3062.8311634 -284.4496667 -0.00192 -0.01457 0.99989
2274.2347717 -3062.8459454 -284.4501734 -0.00077 -0.02454 0.99970
2274.0337849 -3062.8609657 -284.4506800 -0.00268 -0.02186 0.99976
2273.8325596 -3062.8759861 -284.4518423 0.01226 -0.03527 0.99930
2273.6306190 -3062.8910065 -284.4468355 0.05359 -0.05060 0.99728
2273.4272480 -3062.9062653 -284.4315469 0.01687 -0.03029 0.99940
2273.2272148 -3062.9210472 -284.4408751 -0.04367 0.04141 0.99819
2273.0271816 -3062.9360676 -284.4478488 -0.01419 -0.00460 0.99989
2272.8254795 -3062.9510880 -284.4466567 0.00383 -0.01917 0.99981
2272.6242542 -3062.9663467 -284.4469249 0.01686 -0.03527 0.99924
2272.4220753 -3062.9811287 -284.4408453 0.00729 -0.01457 0.99987
2272.2213268 -3062.9963875 -284.4443917 -0.00345 -0.02147 0.99976
2272.0201015 -3063.0111694 -284.4429612 0.00767 -0.02109 0.99975
2271.8186378 -3063.0264282 -284.4418585 0.00728 -0.02531 0.99965
2271.6171741 -3063.0412102 -284.4408154 0.00728 -0.02262 0.99972
2271.4157104 -3063.0564690 -284.4396532 0.02991 -0.01381 0.99946
2271.2128162 -3063.0714893 -284.4291627 0.01035 -0.01572 0.99982
2271.0127831 -3063.0865097 -284.4359875 -0.01610 0.02224 0.99962
2270.8113194 -3063.1015301 -284.4349146 -0.00230 -0.01150 0.99993
2270.6103325 -3063.1165504 -284.4373286 0.02337 -0.04332 0.99879
2270.4074383 -3063.1315708 -284.4266891 0.05478 -0.03489 0.99789
2270.2047825 -3063.1468296 -284.4161689 0.03602 -0.03451 0.99876
2270.0030804 -3063.1616116 -284.4132185 0.01725 -0.02339 0.99958
2269.8016167 -3063.1768703 -284.4098806 0.01955 0.03259 0.99928
2269.5994377 -3063.1918907 -284.4043970 0.00153 -0.00614 0.99998
2269.3989277 -3063.2066727 -284.4094932 -0.04254 -0.02684 0.99873
2269.1991329 -3063.2216930 -284.4221890 -0.00881 -0.03642 0.99930
2268.9967155 -3063.2367134 -284.4141722 0.02837 -0.00575 0.99958
2268.7952518 -3063.2519722 -284.4109237 0.01495 -0.01112 0.99983
2268.5935497 -3063.2667542 -284.4084501 -0.01495 -0.02377 0.99961
2268.3935165 -3063.2817745 -284.4176590 -0.02186 -0.00499 0.99975
2268.1922913 -3063.2967949 -284.4173908 0.03259 0.00882 0.99943
2267.9891586 -3063.3120537 -284.4041884 0.03566 0.00192 0.99936
2267.7879333 -3063.3268356 -284.4029367 -0.00307 0.00077 0.99999
2267.5869465 -3063.3420944 -284.4053209 -0.02684 0.00690 0.99962
2267.3866749 -3063.3568764 -284.4134569 -0.03296 0.02492 0.99915
2267.1859264 -3063.3721352 -284.4178379 -0.01725 0.01496 0.99974
2266.9851780 -3063.3869171 -284.4199836 -0.01342 0.00000 0.99991
2266.7841911 -3063.4021759 -284.4233215 -0.00537 0.00000 0.99999
2266.5827274 -3063.4169579 -284.4221592 0.01994 -0.00153 0.99980
2266.3805485 -3063.4322166 -284.4153345 -0.00690 -0.02991 0.99953
2266.1807537 -3063.4469986 -284.4258547 -0.02223 -0.03642 0.99909
2265.9792900 -3063.4622574 -284.4253480 0.01074 -0.02032 0.99974
2265.7775879 -3063.4770393 -284.4221890 0.02109 -0.01879 0.99960
2265.5756474 -3063.4922981 -284.4174504 0.02339 -0.02032 0.99952
2265.3739452 -3063.5073185 -284.4133973 0.01150 -0.02646 0.99958
2265.1727200 -3063.5221004 -284.4136059 0.00728 -0.03029 0.99951
2264.9712563 -3063.5373592 -284.4114006 0.01648 -0.03144 0.99937
2264.7693157 -3063.5521412 -284.4078839 0.01341 -0.03297 0.99937
2264.5678520 -3063.5674000 -284.4069898 0.00575 -0.03527 0.99936
2264.3666267 -3063.5821819 -284.4067216 0.00230 -0.03336 0.99944
2264.1656399 -3063.5974407 -284.4070494 0.00307 -0.02837 0.99959
2263.9641762 -3063.6124611 -284.4063938 0.00958 -0.02186 0.99972
2281.0630798 -3062.1356964 -284.4484150 0.03642 0.01611 0.99921
2280.8620930 -3062.1507168 -284.4503820 -0.01380 -0.03297 0.99936
2280.6613445 -3062.1657372 -284.4549119 0.01912 -0.07203 0.99722
2280.4586887 -3062.1809959 -284.4448984 0.00997 -0.02761 0.99957
2280.2584171 -3062.1957779 -284.4518125 -0.03258 0.02914 0.99904
2280.0579071 -3062.2107983 -284.4570279 -0.02032 0.01342 0.99970
2279.8569202 -3062.2258186 -284.4595313 0.00192 -0.03067 0.99953
2279.6552181 -3062.2410774 -284.4571769 -0.03067 0.01074 0.99947
2279.4559002 -3062.2558594 -284.4714820 -0.01764 0.00038 0.99984
2279.2537212 -3062.2706413 -284.4642401 -0.00498 -0.02032 0.99978
2279.0536880 -3062.2859001 -284.4741344 -0.02070 -0.01534 0.99967
2278.8522243 -3062.3006821 -284.4730616 0.01189 -0.00077 0.99993
2278.6505222 -3062.3159409 -284.4693363 0.00614 0.00537 0.99997
2278.4495354 -3062.3309612 -284.4703794 0.00498 -0.01611 0.99986
2278.2478333 -3062.3459816 -284.4677866 0.00920 -0.00307 0.99995
2278.0463696 -3062.3610020 -284.4667435 0.01419 -0.01035 0.99985
2277.8444290 -3062.3760223 -284.4623625 0.01610 -0.01611 0.99974
2277.6429653 -3062.3910427 -284.4606638 0.00767 -0.00153 0.99997
2277.4417400 -3062.4060631 -284.4592929 -0.01073 -0.02569 0.99961
2277.2412300 -3062.4210835 -284.4657004 -0.01534 -0.02147 0.99965
2277.0397663 -3062.4361038 -284.4660282 0.01189 -0.01956 0.99974
2276.8378258 -3062.4511242 -284.4615281 0.01150 -0.02224 0.99969
2276.6366005 -3062.4663830 -284.4620347 0.01840 -0.02492 0.99952
2276.4346600 -3062.4811649 -284.4547629 0.01073 -0.03451 0.99935
2276.2339115 -3062.4964237 -284.4587564 0.01342 -0.02071 0.99970
2276.0312557 -3062.5112057 -284.4499350 0.03296 -0.02531 0.99914
2275.8295536 -3062.5264645 -284.4461799 0.00383 0.01381 0.99990
2275.6283283 -3062.5414848 -284.4479084 0.01074 0.00959 0.99990
2275.4263878 -3062.5565052 -284.4415307 0.00613 -0.01841 0.99981
2275.2258778 -3062.5715256 -284.4460309 -0.00729 -0.01035 0.99992
2275.0241756 -3062.5863075 -284.4447792 -0.01879 0.00997 0.99977
2274.8241425 -3062.6015663 -284.4532430 -0.01764 0.00882 0.99981
2274.6224403 -3062.6163483 -284.4515741 0.00767 0.01035 0.99992
2274.4212151 -3062.6316071 -284.4498754 0.00997 -0.00268 0.99995
2274.2195129 -3062.6463890 -284.4475806 0.01342 -0.01496 0.99980
2274.0178108 -3062.6616478 -284.4449878 0.00959 -0.01764 0.99980
2273.8165855 -3062.6764297 -284.4443023 0.02415 -0.02147 0.99948
2273.6141682 -3062.6916885 -284.4359577 0.04139 -0.02837 0.99874
2273.4117508 -3062.7067089 -284.4283581 -0.01496 -0.00997 0.99984
2273.2124329 -3062.7217293 -284.4423354 -0.03258 -0.02186 0.99923
2273.0112076 -3062.7367496 -284.4420671 0.00844 -0.01764 0.99981
2272.8095055 -3062.7517700 -284.4394445 0.01150 -0.03336 0.99938
2272.6080418 -3062.7667904 -284.4383717 0.01035 -0.02454 0.99965
2272.4065781 -3062.7818108 -284.4359875 0.00383 -0.01496 0.99988
2272.2053528 -3062.7968311 -284.4373584 0.00345 -0.02147 0.99976
2272.0038891 -3062.8118515 -284.4352126 0.01189 -0.02262 0.99967
2271.8021870 -3062.8268719 -284.4332457 0.00728 -0.02914 0.99955
2271.6009617 -3062.8421307 -284.4332159 -0.00115 -0.02952 0.99956
2271.3999748 -3062.8569126 -284.4345272 0.00537 -0.01879 0.99981
2271.1982727 -3062.8721714 -284.4316065 -0.00460 0.00575 0.99997
2270.9975243 -3062.8869534 -284.4362557 0.00268 -0.02147 0.99977
2270.7955837 -3062.9022121 -284.4312191 0.03754 -0.04141 0.99844
2270.5931664 -3062.9172325 -284.4223678 0.04132 -0.06323 0.99714
2270.3912258 -3062.9320145 -284.4162881 0.03980 -0.06170 0.99730
2270.1888084 -3062.9472733 -284.4080925 0.01801 -0.04026 0.99903
2269.9878216 -3062.9620552 -284.4102681 -0.03374 -0.00805 0.99940
2269.7880268 -3062.9773140 -284.4218314 0.01074 0.00959 0.99990
2269.5844173 -3062.9923344 -284.4056487 0.03259 0.01917 0.99929
2269.3834305 -3063.0073547 -284.4080925 -0.02722 0.00422 0.99962
2269.1836357 -3063.0221367 -284.4163775 -0.01534 -0.01572 0.99976
2268.9819336 -3063.0373955 -284.4147682 0.01649 0.00115 0.99986
2268.7799931 -3063.0524158 -284.4097614 0.03259 -0.00460 0.99946
2268.5775757 -3063.0674362 -284.4016552 -0.01227 -0.01649 0.99979
2268.3782578 -3063.0824566 -284.4151258 -0.03680 -0.02339 0.99905
2268.1772709 -3063.0974770 -284.4170928 0.02914 -0.00920 0.99953
2267.9741383 -3063.1124973 -284.4035625 0.02913 0.02186 0.99934
2267.7729130 -3063.1275177 -284.4046950 -0.01879 0.01841 0.99965
2267.5724030 -3063.1425381 -284.4105959 -0.04791 0.01649 0.99872
2267.3730850 -3063.1575584 -284.4233215 -0.03488 0.02531 0.99907
2267.1718597 -3063.1725788 -284.4238281 0.00422 0.01266 0.99991
2266.9701576 -3063.1875992 -284.4212651 0.00192 -0.00038 1.00000
2266.7689323 -3063.2026196 -284.4231129 -0.00307 -0.00920 0.99995
2266.5679455 -3063.2176399 -284.4227552 0.03029 -0.00882 0.99950
2266.3650513 -3063.2326603 -284.4111025 0.01649 -0.00805 0.99983
2266.1643028 -3063.2479191 -284.4163179 -0.01992 -0.04256 0.99890
2265.9635544 -3063.2627010 -284.4204307 0.00000 -0.03834 0.99926
2265.7618523 -3063.2777214 -284.4174802 0.01878 -0.03259 0.99929
2265.5603886 -3063.2927418 -284.4138145 0.02261 -0.03067 0.99927
2265.3584480 -3063.3077621 -284.4092250 0.02185 -0.03106 0.99928
2265.1565075 -3063.3227825 -284.4059169 0.01801 -0.04179 0.99896
2264.9550438 -3063.3378029 -284.4031751 0.01762 -0.04600 0.99879
2264.7531033 -3063.3530617 -284.4002247 0.01800 -0.04677 0.99874
2264.5514011 -3063.3678436 -284.3972743 0.01532 -0.05290 0.99848
2264.3501759 -3063.3831024 -284.3956947 0.00536 -0.04983 0.99874
2264.1489506 -3063.3978844 -284.3966484 -0.00268 -0.04179 0.99912
2263.9479637 -3063.4131432 -284.3979895 0.01150 -0.02952 0.99950
2263.7457848 -3063.4279251 -284.3928933 0.02836 -0.02837 0.99919
2281.0490131 -3061.9363785 -284.4561338 0.05939 0.02186 0.99800
2280.8458805 -3061.9513988 -284.4430506 0.05405 -0.00383 0.99853
2280.6434631 -3061.9664192 -284.4343483 0.00383 -0.05711 0.99836
2280.4434299 -3061.9814396 -284.4432890 -0.05863 0.01611 0.99815
2280.2441120 -3061.9962215 -284.4573855 -0.04599 0.02761 0.99856
2280.0431252 -3062.0112419 -284.4609320 -0.00575 0.01035 0.99993
2279.8418999 -3062.0262623 -284.4593525 -0.00499 -0.00882 0.99995
2279.6411514 -3062.0415211 -284.4632566 -0.01611 -0.01112 0.99981
2279.4401646 -3062.0563030 -284.4661772 0.00844 -0.01994 0.99977
2279.2379856 -3062.0715618 -284.4605148 -0.01035 0.00460 0.99994
2279.0381908 -3062.0863438 -284.4702005 -0.01840 -0.01687 0.99969
2278.8367271 -3062.1016026 -284.4684422 0.00844 -0.00767 0.99994
2278.6352634 -3062.1163845 -284.4670117 0.00805 -0.00383 0.99996
2278.4335613 -3062.1316433 -284.4652832 0.00422 -0.01879 0.99981
2278.2323360 -3062.1464252 -284.4659090 0.00345 -0.03067 0.99952
2278.0311108 -3062.1616840 -284.4648361 0.00268 -0.00038 1.00000
2277.8298855 -3062.1764660 -284.4648957 0.00307 0.00767 0.99997
2277.6284218 -3062.1917248 -284.4633460 0.02262 0.00307 0.99974
2277.4260044 -3062.2067451 -284.4557464 0.00882 -0.02224 0.99971
2277.2252560 -3062.2217655 -284.4604850 -0.00460 -0.02837 0.99959
2277.0240307 -3062.2367859 -284.4583988 0.01074 -0.01726 0.99979
2276.8223286 -3062.2518063 -284.4566703 0.00959 -0.01572 0.99983
2276.6208649 -3062.2668266 -284.4550610 0.02377 -0.02569 0.99939
2276.4184475 -3062.2818470 -284.4478190 0.01457 -0.01649 0.99976
2276.2174606 -3062.2968674 -284.4496667 0.00843 -0.02952 0.99953
2276.0155201 -3062.3121262 -284.4453156 -0.00652 -0.01381 0.99988
2275.8154869 -3062.3269081 -284.4527662 -0.01304 -0.00805 0.99988
2275.6137848 -3062.3419285 -284.4507694 0.02569 0.00307 0.99967
2275.4113674 -3062.3569489 -284.4422162 0.02646 -0.00307 0.99965
2275.2099037 -3062.3719692 -284.4402194 -0.00613 -0.03911 0.99922
2275.0096321 -3062.3869896 -284.4459116 -0.02876 -0.01381 0.99949
2274.8091221 -3062.4020100 -284.4521403 -0.01610 -0.01802 0.99971
2274.6078968 -3062.4170303 -284.4529152 0.00997 -0.00729 0.99992
2274.4059563 -3062.4320507 -284.4483554 0.02415 -0.02147 0.99948
2274.2040157 -3062.4470711 -284.4438255 0.01380 -0.02147 0.99967
2274.0027905 -3062.4620914 -284.4433784 0.00422 -0.01035 0.99994
2273.8013268 -3062.4773502 -284.4425142 0.02415 -0.01994 0.99951
2273.5989094 -3062.4921322 -284.4341695 0.03718 -0.01764 0.99915
2273.3967304 -3062.5073910 -284.4279706 0.00115 0.01956 0.99981
2273.1962204 -3062.5221729 -284.4331563 -0.02913 -0.02914 0.99915
2272.9959488 -3062.5374317 -284.4405770 0.00230 -0.02607 0.99966
2272.7937698 -3062.5522137 -284.4330072 0.00959 -0.00499 0.99994
2272.5930214 -3062.5674725 -284.4368517 -0.00422 -0.00153 0.99999
2272.3913193 -3062.5824928 -284.4347358 0.00307 -0.00499 0.99998
2272.1900940 -3062.5975132 -284.4357491 0.00422 -0.01956 0.99980
2271.9886303 -3062.6125336 -284.4336033 0.01572 -0.02186 0.99964
2271.7869282 -3062.6275539 -284.4300568 0.01189 -0.01150 0.99986
2271.5854645 -3062.6425743 -284.4291329 -0.00422 -0.00959 0.99995
2271.3844776 -3062.6573563 -284.4319642 -0.00537 -0.01035 0.99993
2271.1832523 -3062.6726151 -284.4315767 0.01150 0.00077 0.99993
2270.9815502 -3062.6873970 -284.4273746 0.03794 -0.03336 0.99872
2270.7788944 -3062.7026558 -284.4171822 0.04406 -0.03681 0.99835
2270.5767155 -3062.7176762 -284.4105959 0.04254 -0.02761 0.99871
2270.3740597 -3062.7329350 -284.4007611 0.03102 -0.05175 0.99818
2270.1725960 -3062.7477169 -284.3995690 -0.02222 -0.04102 0.99891
2269.9728012 -3062.7627373 -284.4109833 -0.03374 -0.00767 0.99940
2269.7720528 -3062.7777576 -284.4133973 0.00306 -0.04600 0.99894
2269.5703506 -3062.7930164 -284.4111323 0.00383 -0.00499 0.99998
2269.3691254 -3062.8077984 -284.4119966 -0.01227 -0.01074 0.99987
2269.1683769 -3062.8230572 -284.4164371 -0.00307 -0.02991 0.99955
2268.9669132 -3062.8378391 -284.4141722 0.02224 -0.02032 0.99955
2268.7649727 -3062.8530979 -284.4081521 0.02991 -0.00729 0.99953
2268.5627937 -3062.8678799 -284.4022810 -0.00383 0.00422 0.99998
2268.3625221 -3062.8831387 -284.4094932 -0.02492 -0.02109 0.99947
2268.1615353 -3062.8979206 -284.4128609 -0.00498 -0.01534 0.99987
2267.9603100 -3062.9131794 -284.4119966 0.00307 0.02799 0.99960
2267.7588463 -3062.9279613 -284.4108343 -0.00422 0.01534 0.99987
2267.5578594 -3062.9432201 -284.4133079 -0.03374 -0.00729 0.99940
2267.3580647 -3062.9580021 -284.4245434 -0.02147 -0.02876 0.99936
2267.1566010 -3062.9732609 -284.4227850 0.01380 -0.02646 0.99955
2266.9548988 -3062.9880428 -284.4197452 0.00920 -0.02454 0.99966
2266.7536736 -3063.0030632 -284.4197750 0.00805 -0.04102 0.99913
2266.5519714 -3063.0183220 -284.4176888 0.02337 -0.04256 0.99882
2266.3500309 -3063.0331039 -284.4116390 0.02147 -0.01649 0.99963
2266.1483288 -3063.0483627 -284.4095230 0.00613 -0.02837 0.99958
2265.9473419 -3063.0631447 -284.4100296 0.00498 -0.03527 0.99937
2265.7458782 -3063.0784035 -284.4085693 0.01648 -0.03872 0.99911
2265.5439377 -3063.0931854 -284.4045162 0.02337 -0.03911 0.99896
2265.3419971 -3063.1084442 -284.4003737 0.02337 -0.03757 0.99902
2265.1402950 -3063.1234646 -284.3962610 0.02223 -0.03719 0.99906
2264.9385929 -3063.1384850 -284.3924761 0.02146 -0.03489 0.99916
2264.7368908 -3063.1535053 -284.3886614 0.01993 -0.03106 0.99932
2264.5349503 -3063.1687641 -284.3854129 0.00690 -0.02761 0.99959
2264.3339634 -3063.1835461 -284.3866944 -0.01073 -0.02262 0.99969
2264.1329765 -3063.1988049 -284.3904793 -0.01725 -0.01994 0.99965
2281.0339928 -3061.7368221 -284.4554484 0.05175 0.00115 0.99866
2280.8315754 -3061.7518425 -284.4471335 0.05672 0.01266 0.99831
2280.6282043 -3061.7671013 -284.4320238 -0.01648 0.02646 0.99951
2280.4296017 -3061.7818832 -284.4530344 -0.08233 0.02607 0.99626
2280.2300453 -3061.7969036 -284.4641507 -0.02338 0.03566 0.99909
2280.0283432 -3061.8119240 -284.4613791 0.01994 -0.00383 0.99979
2279.8264027 -3061.8269444 -284.4561338 0.02185 -0.02492 0.99945
2279.6247005 -3061.8419647 -284.4532132 -0.01572 -0.02799 0.99948
2279.4249058 -3061.8569851 -284.4633460 -0.03221 -0.00652 0.99946
2279.2239189 -3061.8720055 -284.4662964 -0.01227 0.01227 0.99985
2279.0229321 -3061.8870258 -284.4679952 -0.00690 -0.01956 0.99978
2278.8217068 -3061.9020462 -284.4697237 0.00077 0.00499 0.99999
2278.6202431 -3061.9170666 -284.4675481 0.01649 0.01074 0.99981
2278.4183025 -3061.9320869 -284.4627798 0.02952 0.00268 0.99956
2278.2161236 -3061.9473457 -284.4554782 -0.00882 -0.00614 0.99994
2278.0163288 -3061.9621277 -284.4665349 -0.02377 -0.01074 0.99966
2277.8148651 -3061.9771481 -284.4653428 0.01457 -0.01956 0.99970
2277.6129246 -3061.9921684 -284.4611704 0.03872 -0.01649 0.99911
2277.4102688 -3062.0074272 -284.4501734 0.01687 -0.00729 0.99983
2277.2095203 -3062.0222092 -284.4545841 -0.02032 -0.01879 0.99962
2277.0087719 -3062.0374680 -284.4588757 -0.00038 -0.00537 0.99999
2276.8070698 -3062.0522499 -284.4549417 0.01956 -0.00307 0.99980
2276.6051292 -3062.0672703 -284.4510376 0.01764 -0.00192 0.99984
2276.4036655 -3062.0825291 -284.4478190 0.00997 0.01074 0.99989
2276.2022018 -3062.0973110 -284.4466567 0.00767 0.00499 0.99996
2276.0004997 -3062.1125698 -284.4445705 0.00652 0.01956 0.99979
2275.7990360 -3062.1273518 -284.4433784 -0.00767 -0.02454 0.99967
2275.5985260 -3062.1426105 -284.4483554 0.01188 -0.02991 0.99948
2275.3961086 -3062.1573925 -284.4395339 0.04485 -0.01687 0.99885
2275.1936913 -3062.1726513 -284.4306529 0.00000 -0.01956 0.99981
2274.9936581 -3062.1876717 -284.4401598 -0.03717 -0.03642 0.99865
2274.7931480 -3062.2026920 -284.4466269 -0.01801 -0.03259 0.99931
