# .PCD v0.7 - Point Cloud Data file format
VERSION 0.7
FIELDS x y z
SIZE 4 4 4
TYPE F F F
COUNT 1 1 1
WIDTH 292
HEIGHT 1
VIEWPOINT 0 0 0 1 0 0 0
POINTS 292
DATA ascii
2284.1316 -3073.3459 -285.91843
2283.9102 -3073.1616 -285.88016
2283.7087 -3073.1768 -285.87933
2283.103 -3073.2219 -285.86542
2282.9026 -3073.2368 -285.87131
2282.7012 -3073.252 -285.87054
2282.4995 -3073.2671 -285.8674
2282.2979 -3073.282 -285.8649
2282.6802 -3073.0527 -285.82639
2282.479 -3073.0676 -285.82718
2282.2778 -3073.0828 -285.82797
2282.0764 -3073.0979 -285.82739
2281.6733 -3073.1279 -285.82355
2281.4707 -3073.1428 -285.81317
2281.269 -3073.158 -285.81067
2280.8665 -3073.188 -285.80997
2281.6531 -3072.9287 -285.78491
2281.0481 -3072.9736 -285.77567
2280.8445 -3072.9888 -285.75873
2280.4429 -3073.0188 -285.76608
2280.2419 -3073.0339 -285.76773
2280.0408 -3073.0488 -285.76981
2279.8389 -3073.064 -285.76355
2279.6375 -3073.0789 -285.76303
2280.2205 -3072.8347 -285.72034
2279.8181 -3072.8647 -285.72205
2279.6167 -3072.8796 -285.72183
2279.4158 -3072.8948 -285.7244
2279.2148 -3072.9097 -285.72601
2279.0139 -3072.9248 -285.72961
2279.1936 -3072.7104 -285.68027
2278.9932 -3072.7256 -285.68704
2278.792 -3072.7405 -285.68729
2278.3896 -3072.7705 -285.68906
2278.5698 -3072.5564 -285.64432
2278.1672 -3072.5864 -285.64365
2277.9653 -3072.6016 -285.63904
2277.7642 -3072.6165 -285.63937
2277.5623 -3072.6316 -285.6348
2277.3616 -3072.6465 -285.6387
2277.7437 -3072.4172 -285.59976
2277.3416 -3072.4473 -285.60205
2277.1401 -3072.4624 -285.60135
2276.9382 -3072.4773 -285.59634
2276.7371 -3072.4924 -285.59827
2276.5356 -3072.5073 -285.59641
2276.3345 -3072.5225 -285.59702
2276.1335 -3072.5374 -285.59958
2277.3213 -3072.248 -285.56461
2276.918 -3072.2781 -285.55765
2276.5146 -3072.3081 -285.55359
2276.3137 -3072.3232 -285.55615
2276.1128 -3072.3381 -285.55798
2275.9119 -3072.3533 -285.56079
2275.51 -3072.3833 -285.56558
2274.9033 -3072.4285 -285.54465
2275.8914 -3072.1541 -285.51956
2275.6902 -3072.1689 -285.51996
2275.4888 -3072.1841 -285.52036
2275.2876 -3072.199 -285.52045
2274.8833 -3072.2292 -285.50671
2274.6836 -3072.2441 -285.51935
2275.0647 -3072.0149 -285.47101
2274.4609 -3072.0601 -285.4726
2274.2598 -3072.075 -285.47382
2274.0586 -3072.0901 -285.47452
2273.8574 -3072.105 -285.47507
2273.6565 -3072.1201 -285.4762
2274.0383 -3071.8909 -285.43491
2273.8367 -3071.9058 -285.43265
2273.6362 -3071.9209 -285.43814
2273.2341 -3071.9509 -285.44141
2273.0325 -3071.9658 -285.43936
2273.0103 -3071.7666 -285.3862
2272.4077 -3071.8118 -285.3952
2272.2063 -3071.8267 -285.39423
2271.4006 -3071.887 -285.38965
2272.3879 -3071.6125 -285.36032
2272.1863 -3071.6274 -285.35651
2271.9844 -3071.6426 -285.35211
2271.7827 -3071.6577 -285.35065
2271.5813 -3071.6726 -285.3497
2271.3799 -3071.6877 -285.34824
2270.9763 -3071.7178 -285.33978
2270.5737 -3071.7478 -285.33911
2271.5615 -3071.4734 -285.31369
2271.3599 -3071.4885 -285.31165
2271.1589 -3071.5034 -285.31274
2270.9568 -3071.5186 -285.30756
2270.7549 -3071.5334 -285.30161
2270.5532 -3071.5486 -285.30029
2270.3525 -3071.5635 -285.30356
2270.1321 -3071.3794 -285.27243
2269.9312 -3071.3943 -285.27496
2269.7295 -3071.4094 -285.27377
2269.3267 -3071.4395 -285.27032
2268.9243 -3071.4695 -285.27301
2269.1052 -3071.2551 -285.23294
2268.9038 -3071.2703 -285.23254
2268.5017 -3071.3003 -285.23532
2268.3005 -3071.3152 -285.23679
2269.085 -3071.0559 -285.19424
2268.8845 -3071.071 -285.20007
2268.6833 -3071.0859 -285.20047
2268.4817 -3071.1011 -285.19885
2268.2805 -3071.116 -285.19879
2268.0796 -3071.1311 -285.20206
2267.8792 -3071.146 -285.20743
2268.4617 -3070.9019 -285.16248
2268.2615 -3070.9167 -285.17001
2268.0601 -3070.9319 -285.16794
2267.8584 -3070.9468 -285.16595
2267.658 -3070.9619 -285.17117
2267.457 -3070.9768 -285.17398
2268.2419 -3070.7175 -285.13687
2268.0405 -3070.7324 -285.13553
2267.6377 -3070.7625 -285.13367
2267.436 -3070.7776 -285.13004
2267.2351 -3070.7927 -285.133
2267.0349 -3070.8076 -285.1412
2266.4302 -3070.8528 -285.13409
2267.4167 -3070.5784 -285.0993
2267.2156 -3070.5933 -285.10031
2267.0146 -3070.6084 -285.1015
2266.8132 -3070.6233 -285.1019
2266.6121 -3070.6384 -285.10229
2266.4102 -3070.6536 -285.09686
2266.2095 -3070.6685 -285.10205
2266.7935 -3070.4241 -285.06677
2266.5923 -3070.4392 -285.06656
2266.3911 -3070.4541 -285.06857
2266.1904 -3070.4692 -285.0722
2265.385 -3070.5293 -285.06958
2266.3718 -3070.2549 -285.03604
2266.1707 -3070.27 -285.0372
2265.7681 -3070.3 -285.03674
2265.1633 -3070.345 -285.02927
2264.9604 -3070.3601 -285.01862
2264.7593 -3070.3752 -285.01862
2264.5591 -3070.3901 -285.02765
2265.9502 -3070.0857 -285.0061
2265.1433 -3070.1458 -284.99246
2264.9407 -3070.1609 -284.98315
2264.74 -3070.176 -284.98697
2264.3401 -3070.2058 -285.00659
2264.7219 -3069.9766 -284.96564
2264.522 -3069.9915 -284.97467
2264.7034 -3069.7773 -284.93832
2264.801 -3063.9512 -284.42044
2263.9949 -3064.0112 -284.4118
2264.1807 -3063.7969 -284.40811
2263.9792 -3063.8118 -284.40698
2266.1807 -3063.447 -284.42584
2265.9792 -3063.4622 -284.42535
2265.374 -3063.5073 -284.41339
2265.1726 -3063.5222 -284.4136
2264.9712 -3063.5374 -284.41141
2264.7693 -3063.5522 -284.4079
2264.3667 -3063.5823 -284.40671
2264.1655 -3063.5974 -284.40704
2263.9641 -3063.6125 -284.4064
2266.5679 -3063.2175 -284.42276
2266.1643 -3063.2478 -284.41632
2265.9636 -3063.2627 -284.42044
2265.5603 -3063.2927 -284.41382
2265.3584 -3063.3079 -284.40921
2264.9551 -3063.3379 -284.40317
2264.7532 -3063.353 -284.40024
2264.3501 -3063.3831 -284.39569
2267.1565 -3062.9731 -284.42279
2266.9548 -3062.988 -284.41974
2266.552 -3063.0183 -284.41769
2266.3501 -3063.0332 -284.41165
2265.9473 -3063.0632 -284.41003
2265.7458 -3063.0784 -284.40857
2265.5439 -3063.0933 -284.40451
2265.342 -3063.1084 -284.40036
2265.1404 -3063.1235 -284.39627
2264.9385 -3063.1384 -284.39249
2264.7368 -3063.1536 -284.38867
2264.5349 -3063.1687 -284.38541
2264.334 -3063.1836 -284.38669
2267.9456 -3062.7136 -284.41464
2267.5422 -3062.7437 -284.40866
2267.3416 -3062.7588 -284.41251
2267.1401 -3062.7737 -284.41287
2266.7368 -3062.8037 -284.40656
2266.334 -3062.8337 -284.40381
2265.9316 -3062.8638 -284.40616
2265.1245 -3062.9241 -284.39032
2264.9229 -3062.9392 -284.38852
2268.1306 -3062.4993 -284.40585
2267.728 -3062.5293 -284.40488
2267.3252 -3062.5593 -284.40417
2267.1238 -3062.5742 -284.40295
2266.9221 -3062.5894 -284.40009
2266.7214 -3062.6042 -284.40323
2266.5203 -3062.6194 -284.40491
2266.3188 -3062.6345 -284.40421
2266.1174 -3062.6494 -284.40216
2268.3162 -3062.2847 -284.40128
2268.1152 -3062.2998 -284.40378
2267.9136 -3062.3147 -284.40051
2267.7119 -3062.3298 -284.39655
2267.5103 -3062.345 -284.39496
2266.9075 -3062.3899 -284.40234
2269.1074 -3062.0251 -284.40912
2268.9053 -3062.0403 -284.40381
2268.7031 -3062.0552 -284.39615
2268.1001 -3062.1003 -284.40198
2267.4946 -3062.1455 -284.39059
2270.7046 -3061.7056 -284.42377
2270.5029 -3061.7205 -284.42059
2269.0923 -3061.8257 -284.40775
2268.8906 -3061.8408 -284.40536
2268.4849 -3061.8708 -284.38232
2268.2852 -3061.886 -284.39346
2268.0847 -3061.9009 -284.40054
2270.8914 -3061.491 -284.42712
2270.6897 -3061.5061 -284.42471
2270.4875 -3061.521 -284.41864
2270.2849 -3061.5361 -284.40894
2270.0842 -3061.5513 -284.41306
2269.48 -3061.5962 -284.40939
2269.2791 -3061.6113 -284.41324
2272.2869 -3061.1863 -284.43939
2272.0852 -3061.2014 -284.43738
2271.8838 -3061.2163 -284.43585
2271.6819 -3061.2314 -284.43216
2271.2781 -3061.2615 -284.42267
2271.0769 -3061.2766 -284.42233
2270.876 -3061.2915 -284.42554
2270.4717 -3061.3218 -284.41241
2270.27 -3061.3367 -284.40894
2270.0693 -3061.3518 -284.41437
2269.6653 -3061.3818 -284.4032
2273.4797 -3060.8967 -284.44153
2273.2795 -3060.9116 -284.45026
2273.0779 -3060.9268 -284.44638
2272.8743 -3060.9419 -284.42984
2272.4731 -3060.9719 -284.44012
2272.2717 -3060.9868 -284.43927
2271.4661 -3061.0471 -284.43408
2274.272 -3060.6372 -284.45703
2274.0708 -3060.6521 -284.45859
2273.8684 -3060.6672 -284.45023
2273.666 -3060.6824 -284.44156
2273.4653 -3060.6973 -284.44675
2273.2644 -3060.7122 -284.44934
2273.0623 -3060.7273 -284.44254
2272.6597 -3060.7573 -284.44159
2272.4578 -3060.7725 -284.43732
2275.062 -3060.3777 -284.45782
2274.8608 -3060.3926 -284.45761
2274.6597 -3060.4077 -284.45963
2274.4585 -3060.4226 -284.46039
2274.2578 -3060.4377 -284.46408
2274.0554 -3060.4526 -284.45605
2276.46 -3060.0728 -284.48743
2276.0564 -3060.103 -284.47916
2275.6511 -3060.1331 -284.46033
2275.4502 -3060.1479 -284.46228
2275.2493 -3060.1631 -284.46512
2274.8467 -3060.1931 -284.4653
2274.6455 -3060.2083 -284.46588
2278.0566 -3059.7532 -284.49808
2277.6543 -3059.7832 -284.50095
2277.4519 -3059.7983 -284.49152
2277.2502 -3059.8132 -284.48895
2276.8489 -3059.8433 -284.49814
2276.6467 -3059.8584 -284.49091
2276.4451 -3059.8733 -284.48914
2275.6377 -3059.9336 -284.47171
2275.4363 -3059.9485 -284.47122
2279.2517 -3059.4634 -284.51624
2279.0503 -3059.4785 -284.51596
2278.6467 -3059.5085 -284.50739
2278.4441 -3059.5237 -284.49841
2278.2422 -3059.5388 -284.49255
2278.0415 -3059.5537 -284.49792
2277.6411 -3059.5837 -284.51291
2279.8411 -3059.219 -284.52002
2279.6411 -3059.2339 -284.53113
2279.2375 -3059.2639 -284.52213
2279.0356 -3059.2791 -284.51846
2278.8335 -3059.2942 -284.51224
2278.2278 -3059.3394 -284.49753
2280.6331 -3058.9592 -284.53537
2280.4312 -3058.9744 -284.53052
2280.2307 -3058.9893 -284.53732
2279.8274 -3059.0195 -284.52997
2280.821 -3058.7449 -284.54779
